743
0.767000 -7.776000 -7.558000 
-0.531000 -7.080000 -7.503000 
-1.036000 -7.016000 -6.062000 
-0.439000 -7.621000 -5.172000 
-1.553000 -7.790000 -8.394000 
0.661000 -8.712000 -7.195000 
1.087000 -7.819000 -8.515000 
1.442000 -7.273000 -7.000000 
-0.396000 -6.062000 -7.870000 
-1.170000 -7.846000 -9.413000 
-1.729000 -8.798000 -8.016000 
-2.490000 -7.233000 -8.390000 
-2.137000 -6.280000 -5.844000 
-2.739000 -6.130000 -4.523000 
-1.705000 -5.591000 -3.528000 
-1.435000 -6.219000 -2.503000 
-3.307000 -7.481000 -4.063000 
-4.256000 -7.274000 -2.874000 
-4.035000 -8.339000 -1.806000 
-4.879000 -9.207000 -1.606000 
-2.896000 -8.267000 -1.118000 
-2.577000 -5.806000 -6.620000 
-3.559000 -5.414000 -4.596000 
-3.859000 -7.940000 -4.885000 
-2.490000 -8.140000 -3.769000 
-4.081000 -6.291000 -2.437000 
-5.287000 -7.327000 -3.226000 
-2.224000 -7.540000 -1.332000 
-2.706000 -8.937000 -0.388000 
-1.131000 -4.420000 -3.839000 
-0.134000 -3.783000 -2.986000 
-0.652000 -2.407000 -2.553000 
-0.570000 -1.456000 -3.327000 
1.187000 -3.639000 -3.758000 
1.787000 -5.021000 -4.071000 
2.768000 -5.446000 -2.966000 
2.077000 -5.725000 -1.698000 
1.372000 -6.851000 -1.468000 
1.235000 -7.775000 -2.429000 
0.804000 -7.047000 -0.271000 
-1.392000 -3.951000 -4.695000 
0.037000 -4.396000 -2.110000 
0.998000 -3.111000 -4.694000 
1.894000 -3.062000 -3.161000 
0.991000 -5.756000 -4.154000 
2.324000 -4.968000 -5.019000 
3.300000 -6.342000 -3.288000 
3.493000 -4.646000 -2.807000 
2.143000 -5.029000 -0.969000 
1.652000 -7.626000 -3.335000 
0.713000 -8.620000 -2.249000 
0.913000 -6.358000 0.459000 
0.267000 -7.884000 -0.096000 
-1.187000 -2.290000 -1.317000 
-1.707000 -1.034000 -0.809000 
-0.612000 0.034000 -0.761000 
-0.896000 1.219000 -0.929000 
-2.250000 -1.339000 0.591000 
-2.038000 -2.838000 0.838000 
-1.303000 -3.391000 -0.382000 
-2.522000 -0.692000 -1.449000 
-1.707000 -0.759000 1.339000 
-3.313000 -1.101000 0.638000 
-1.437000 -2.987000 1.736000 
-3.002000 -3.336000 0.950000 
-0.313000 -3.742000 -0.090000 
-1.877000 -4.205000 -0.826000 
0.641000 -0.389000 -0.530000 
1.771000 0.524000 -0.461000 
2.168000 0.978000 -1.868000 
3.222000 0.597000 -2.372000 
2.940000 -0.176000 0.235000 
0.816000 -1.374000 -0.398000 
1.487000 1.399000 0.126000 
3.199000 -1.085000 -0.310000 
3.801000 0.491000 0.258000 
2.655000 -0.435000 1.255000 
1.318000 1.799000 -2.493000 
1.576000 2.323000 -3.829000 
2.458000 3.572000 -3.746000 
2.952000 4.049000 -4.765000 
0.244000 2.662000 -4.503000 
-0.635000 1.409000 -4.582000 
-1.857000 1.671000 -5.471000 
-2.721000 2.793000 -4.877000 
-2.377000 4.101000 -5.466000 
0.461000 2.074000 -2.029000 
2.090000 1.564000 -4.420000 
-0.267000 3.430000 -3.921000 
0.434000 3.036000 -5.510000 
-0.054000 0.588000 -5.005000 
-0.968000 1.134000 -3.582000 
-1.525000 1.954000 -6.471000 
-2.451000 0.758000 -5.537000 
-3.770000 2.579000 -5.083000 
-2.571000 2.832000 -3.798000 
-1.396000 4.291000 -5.325000 
-2.574000 4.083000 -6.461000 
-2.927000 4.825000 -5.028000 
2.650000 4.104000 -2.533000 
3.447000 5.297000 -2.329000 
4.924000 4.941000 -2.423000 
5.347000 3.932000 -1.866000 
3.116000 5.894000 -0.957000 
2.408000 7.226000 -1.038000 
3.029000 8.305000 -1.686000 
1.132000 7.387000 -0.470000 
2.376000 9.543000 -1.771000 
0.479000 8.628000 -0.554000 
1.100000 9.706000 -1.205000 
0.465000 10.909000 -1.291000 
2.235000 3.669000 -1.726000 
3.204000 6.023000 -3.106000 
2.486000 5.194000 -0.407000 
4.040000 6.030000 -0.407000 
4.008000 8.181000 -2.123000 
0.652000 6.558000 0.029000 
2.852000 10.366000 -2.277000 
-0.502000 8.753000 -0.120000 
0.978000 11.572000 -1.757000 
5.703000 5.772000 -3.129000 
7.129000 5.544000 -3.313000 
7.931000 6.584000 -2.535000 
7.432000 7.677000 -2.265000 
7.454000 5.626000 -4.806000 
8.727000 5.065000 -5.049000 
5.295000 6.593000 -3.560000 
7.385000 4.554000 -2.949000 
6.701000 5.077000 -5.371000 
7.452000 6.670000 -5.120000 
8.924000 5.150000 -5.985000 
9.177000 6.241000 -2.177000 
10.063000 7.149000 -1.456000 
11.353000 7.324000 -2.250000 
11.727000 6.445000 -3.019000 
10.356000 6.596000 -0.055000 
11.313000 5.419000 -0.046000 
12.702000 5.642000 0.019000 
10.817000 4.106000 -0.095000 
13.589000 4.553000 0.030000 
11.706000 3.017000 -0.085000 
13.091000 3.241000 -0.025000 
13.952000 2.181000 -0.016000 
9.529000 5.322000 -2.420000 
9.579000 8.119000 -1.354000 
10.789000 7.395000 0.547000 
9.418000 6.288000 0.404000 
13.087000 6.650000 0.060000 
9.753000 3.932000 -0.142000 
14.654000 4.726000 0.079000 
11.324000 2.008000 -0.124000 
14.875000 2.447000 -0.018000 
12.028000 8.464000 -2.058000 
13.278000 8.757000 -2.747000 
14.269000 9.341000 -1.745000 
13.959000 10.324000 -1.072000 
13.015000 9.744000 -3.897000 
14.326000 10.036000 -4.636000 
12.005000 9.143000 -4.882000 
11.670000 9.153000 -1.413000 
13.690000 7.833000 -3.157000 
12.614000 10.674000 -3.493000 
14.771000 9.099000 -4.973000 
14.123000 10.670000 -5.499000 
15.017000 10.547000 -3.967000 
12.352000 8.161000 -5.206000 
11.035000 9.044000 -4.397000 
11.909000 9.797000 -5.748000 
15.458000 8.729000 -1.648000 
16.498000 9.178000 -0.729000 
17.657000 9.797000 -1.513000 
17.529000 10.078000 -2.705000 
16.981000 7.983000 0.103000 
17.972000 7.137000 -0.684000 
17.566000 6.637000 -1.752000 
19.119000 7.016000 -0.208000 
15.654000 7.925000 -2.230000 
16.086000 9.930000 -0.057000 
17.464000 8.350000 1.009000 
16.126000 7.367000 0.380000 
18.789000 10.005000 -0.832000 
19.976000 10.583000 -1.440000 
20.505000 9.664000 -2.544000 
20.887000 10.140000 -3.612000 
21.049000 10.796000 -0.362000 
20.684000 11.994000 0.530000 
19.446000 11.715000 1.380000 
19.325000 10.565000 1.855000 
18.644000 12.661000 1.539000 
18.833000 9.754000 0.150000 
19.717000 11.547000 -1.879000 
21.134000 9.896000 0.250000 
22.007000 10.991000 -0.845000 
21.523000 12.211000 1.191000 
20.496000 12.864000 -0.100000 
20.534000 8.347000 -2.286000 
21.028000 7.382000 -3.261000 
20.091000 7.333000 -4.464000 
20.546000 7.409000 -5.605000 
21.146000 5.999000 -2.611000 
22.254000 5.975000 -1.562000 
21.989000 5.811000 -0.375000 
23.503000 6.138000 -2.003000 
20.204000 8.002000 -1.389000 
22.016000 7.698000 -3.600000 
20.198000 5.739000 -2.139000 
21.372000 5.261000 -3.382000 
23.676000 6.267000 -2.989000 
24.271000 6.133000 -1.350000 
18.783000 7.205000 -4.205000 
17.777000 7.152000 -5.257000 
17.043000 5.815000 -5.222000 
16.759000 5.233000 -6.270000 
18.469000 7.142000 -3.241000 
17.059000 7.958000 -5.106000 
18.252000 7.276000 -6.230000 
16.731000 5.332000 -4.014000 
16.017000 4.080000 -3.835000 
14.530000 4.307000 -4.099000 
13.723000 4.285000 -3.171000 
16.247000 3.568000 -2.407000 
17.631000 2.922000 -2.298000 
17.572000 1.451000 -2.688000 
17.147000 0.651000 -1.825000 
17.945000 1.147000 -3.841000 
16.996000 5.852000 -3.186000 
16.396000 3.343000 -4.545000 
16.179000 4.401000 -1.709000 
15.485000 2.828000 -2.159000 
18.329000 3.443000 -2.954000 
17.982000 3.002000 -1.268000 
14.174000 4.524000 -5.372000 
12.793000 4.744000 -5.769000 
12.009000 3.438000 -5.619000 
11.807000 2.714000 -6.594000 
12.760000 5.256000 -7.216000 
13.652000 6.343000 -7.346000 
11.345000 5.719000 -7.573000 
14.886000 4.538000 -6.092000 
12.355000 5.499000 -5.120000 
13.064000 4.457000 -7.893000 
13.649000 6.633000 -8.261000 
11.026000 6.490000 -6.872000 
11.341000 6.126000 -8.585000 
10.659000 4.874000 -7.521000 
11.580000 3.142000 -4.387000 
10.845000 1.924000 -4.079000 
9.616000 2.269000 -3.242000 
9.514000 3.377000 -2.715000 
11.767000 0.960000 -3.318000 
12.966000 0.581000 -4.195000 
13.945000 -0.277000 -3.391000 
15.154000 -0.625000 -4.264000 
16.208000 -1.286000 -3.475000 
11.774000 3.784000 -3.627000 
10.520000 1.450000 -5.006000 
12.123000 1.443000 -2.409000 
11.212000 0.059000 -3.055000 
12.619000 0.020000 -5.064000 
13.475000 1.484000 -4.528000 
14.279000 0.281000 -2.513000 
13.449000 -1.194000 -3.071000 
14.837000 -1.290000 -5.068000 
15.558000 0.292000 -4.697000 
16.490000 -0.678000 -2.712000 
15.857000 -2.155000 -3.101000 
17.006000 -1.469000 -4.066000 
8.684000 1.316000 -3.122000 
7.462000 1.518000 -2.357000 
7.799000 1.729000 -0.880000 
8.851000 1.293000 -0.416000 
6.544000 0.304000 -2.538000 
7.284000 -0.884000 -2.346000 
5.952000 0.311000 -3.949000 
8.821000 0.423000 -3.571000 
6.955000 2.401000 -2.735000 
5.736000 0.349000 -1.807000 
6.698000 -1.633000 -2.474000 
5.393000 1.234000 -4.104000 
6.754000 0.245000 -4.683000 
5.282000 -0.541000 -4.066000 
6.903000 2.401000 -0.138000 
7.121000 2.658000 1.282000 
7.200000 1.329000 2.031000 
8.244000 0.997000 2.588000 
5.983000 3.526000 1.837000 
6.004000 4.967000 1.414000 
6.737000 5.489000 0.414000 
5.254000 6.094000 1.966000 
6.509000 6.838000 0.285000 
5.593000 7.272000 1.224000 
4.316000 6.250000 3.015000 
5.034000 8.521000 1.502000 
3.752000 7.513000 3.302000 
4.110000 8.644000 2.546000 
6.046000 2.745000 -0.568000 
8.065000 3.189000 1.407000 
5.033000 3.092000 1.522000 
6.030000 3.493000 2.926000 
7.412000 4.924000 -0.211000 
6.941000 7.447000 -0.399000 
4.028000 5.392000 3.605000 
5.312000 9.385000 0.917000 
3.039000 7.611000 4.107000 
3.673000 9.606000 2.771000 
6.080000 0.580000 2.030000 
5.969000 -0.725000 2.691000 
6.664000 -0.707000 4.069000 
6.704000 0.334000 4.732000 
6.508000 -1.833000 1.748000 
6.253000 -3.104000 2.313000 
8.014000 -1.681000 1.494000 
5.265000 0.927000 1.550000 
4.910000 -0.921000 2.860000 
5.984000 -1.766000 0.794000 
6.538000 -3.778000 1.689000 
8.541000 -1.540000 2.435000 
8.389000 -2.580000 1.004000 
8.190000 -0.825000 0.847000 
7.198000 -1.859000 4.501000 
7.875000 -1.972000 5.782000 
6.865000 -1.864000 6.918000 
6.415000 -2.878000 7.449000 
7.131000 -2.685000 3.921000 
8.378000 -2.938000 5.838000 
8.614000 -1.176000 5.875000 
6.514000 -0.626000 7.284000 
5.550000 -0.360000 8.345000 
4.450000 0.578000 7.832000 
3.455000 0.787000 8.521000 
6.267000 0.271000 9.546000 
7.315000 -0.697000 10.115000 
8.663000 -0.536000 9.413000 
9.200000 0.569000 9.340000 
9.211000 -1.637000 8.900000 
6.927000 0.165000 6.807000 
5.090000 -1.297000 8.660000 
6.753000 1.192000 9.233000 
5.533000 0.497000 10.320000 
7.446000 -0.491000 11.177000 
6.963000 -1.722000 9.993000 
8.732000 -2.523000 8.979000 
10.105000 -1.584000 8.433000 
4.630000 1.143000 6.625000 
3.657000 2.056000 6.047000 
3.579000 3.330000 6.884000 
2.577000 3.576000 7.551000 
5.464000 0.936000 6.092000 
3.958000 2.309000 5.030000 
2.678000 1.577000 6.024000 
4.646000 4.138000 6.847000 
4.710000 5.373000 7.613000 
5.683000 6.347000 6.948000 
6.239000 6.047000 5.891000 
5.140000 5.056000 9.055000 
6.471000 4.294000 9.059000 
6.921000 4.054000 10.501000 
8.070000 3.140000 10.547000 
8.745000 2.862000 11.676000 
8.411000 3.461000 12.828000 
9.752000 1.982000 11.647000 
5.440000 3.891000 6.274000 
3.719000 5.830000 7.633000 
5.253000 5.985000 9.614000 
4.373000 4.443000 9.532000 
6.342000 3.336000 8.556000 
7.229000 4.877000 8.537000 
7.199000 5.008000 10.951000 
6.095000 3.618000 11.066000 
8.357000 2.703000 9.681000 
7.645000 4.118000 12.852000 
8.925000 3.256000 13.672000 
9.965000 1.486000 10.787000 
10.299000 1.810000 12.477000 
5.880000 7.514000 7.578000 
6.768000 8.551000 7.066000 
7.867000 8.833000 8.108000 
7.694000 9.701000 8.963000 
5.932000 9.810000 6.782000 
4.718000 9.440000 6.161000 
6.701000 10.745000 5.853000 
5.394000 7.696000 8.443000 
7.223000 8.216000 6.137000 
5.714000 10.325000 7.718000 
4.206000 10.235000 5.993000 
7.710000 10.894000 6.236000 
6.751000 10.303000 4.859000 
6.187000 11.704000 5.796000 
8.997000 8.091000 8.050000 
10.073000 8.231000 9.012000 
10.737000 9.609000 8.917000 
10.539000 10.449000 9.794000 
11.062000 7.099000 8.702000 
10.593000 6.447000 7.397000 
9.244000 7.076000 7.047000 
9.676000 8.094000 10.019000 
12.071000 7.494000 8.584000 
11.045000 6.364000 9.508000 
11.313000 6.645000 6.602000 
10.480000 5.371000 7.535000 
9.292000 7.528000 6.059000 
8.463000 6.319000 7.077000 
11.536000 9.840000 7.863000 
12.254000 11.101000 7.709000 
12.660000 11.333000 6.253000 
12.603000 12.459000 5.779000 
13.494000 11.082000 8.605000 
11.655000 9.127000 7.159000 
11.607000 11.919000 8.024000 
14.137000 10.248000 8.322000 
14.041000 12.018000 8.489000 
13.191000 10.968000 9.646000 
13.077000 10.270000 5.551000 
13.518000 10.372000 4.159000 
12.492000 11.146000 3.323000 
12.837000 12.121000 2.657000 
13.726000 8.958000 3.592000 
14.064000 9.039000 2.100000 
14.877000 8.268000 4.333000 
13.099000 9.363000 5.990000 
14.469000 10.907000 4.130000 
12.813000 8.375000 3.723000 
14.898000 9.724000 1.953000 
14.339000 8.049000 1.737000 
13.197000 9.397000 1.546000 
15.782000 8.870000 4.242000 
14.621000 8.155000 5.386000 
15.052000 7.284000 3.897000 
11.234000 10.702000 3.361000 
10.161000 11.328000 2.601000 
10.012000 12.797000 3.003000 
9.951000 13.668000 2.143000 
8.863000 10.551000 2.857000 
8.956000 9.165000 2.202000 
7.666000 11.312000 2.272000 
8.203000 8.142000 3.051000 
11.008000 9.900000 3.930000 
10.402000 11.276000 1.538000 
8.726000 10.434000 3.931000 
8.520000 9.202000 1.203000 
10.001000 8.866000 2.127000 
7.862000 11.554000 1.228000 
6.774000 10.692000 2.338000 
7.506000 12.232000 2.834000 
7.177000 8.474000 3.199000 
8.203000 7.177000 2.543000 
8.693000 8.041000 4.016000 
9.951000 13.065000 4.314000 
9.790000 14.423000 4.827000 
10.919000 15.325000 4.321000 
10.669000 16.455000 3.911000 
9.769000 14.382000 6.359000 
8.407000 13.863000 6.842000 
8.588000 12.927000 8.044000 
9.176000 13.697000 9.231000 
9.272000 12.833000 10.422000 
10.014000 12.310000 4.979000 
8.839000 14.823000 4.472000 
10.560000 13.723000 6.713000 
9.933000 15.386000 6.752000 
7.780000 14.708000 7.130000 
7.922000 13.316000 6.034000 
7.618000 12.516000 8.327000 
9.258000 12.111000 7.772000 
10.172000 14.057000 8.971000 
8.536000 14.551000 9.459000 
9.845000 12.023000 10.208000 
9.691000 13.350000 11.181000 
8.348000 12.528000 10.692000 
12.157000 14.823000 4.352000 
13.311000 15.581000 3.899000 
13.158000 15.915000 2.417000 
13.237000 17.077000 2.033000 
14.585000 14.764000 4.152000 
15.797000 15.490000 3.561000 
17.080000 14.741000 3.931000 
18.294000 15.458000 3.328000 
18.321000 15.325000 1.860000 
12.307000 13.887000 4.699000 
13.369000 16.511000 4.467000 
14.726000 14.639000 5.226000 
14.489000 13.784000 3.685000 
15.700000 15.528000 2.477000 
15.841000 16.506000 3.956000 
17.181000 14.711000 5.016000 
17.031000 13.721000 3.545000 
18.253000 16.516000 3.591000 
19.205000 15.023000 3.741000 
17.474000 15.719000 1.465000 
19.119000 15.821000 1.492000 
18.387000 14.345000 1.609000 
12.937000 14.890000 1.587000 
12.783000 15.074000 0.150000 
11.630000 16.039000 -0.146000 
11.711000 16.836000 -1.080000 
12.532000 13.715000 -0.504000 
12.876000 13.949000 1.959000 
13.705000 15.494000 -0.253000 
11.663000 13.245000 -0.045000 
12.351000 13.851000 -1.570000 
13.405000 13.077000 -0.363000 
10.556000 15.964000 0.650000 
9.395000 16.819000 0.466000 
9.765000 18.274000 0.757000 
9.440000 19.164000 -0.022000 
8.269000 16.347000 1.394000 
6.983000 17.123000 1.092000 
5.530000 16.521000 1.993000 
6.033000 16.935000 3.682000 
10.540000 15.292000 1.406000 
9.059000 16.737000 -0.567000 
8.092000 15.283000 1.235000 
8.559000 16.513000 2.430000 
7.138000 18.171000 1.347000 
6.777000 17.051000 0.025000 
6.273000 17.997000 3.739000 
5.217000 16.710000 4.368000 
6.908000 16.349000 3.956000 
10.443000 18.510000 1.882000 
10.840000 19.852000 2.277000 
11.810000 20.442000 1.251000 
11.647000 21.585000 0.829000 
11.485000 19.793000 3.665000 
11.897000 21.183000 4.133000 
10.993000 21.923000 4.575000 
13.108000 21.477000 4.040000 
10.691000 17.738000 2.489000 
9.952000 20.482000 2.325000 
10.770000 19.375000 4.374000 
12.366000 19.152000 3.626000 
12.818000 19.658000 0.856000 
13.820000 20.103000 -0.101000 
13.179000 20.400000 -1.458000 
13.516000 21.402000 -2.088000 
14.899000 19.025000 -0.241000 
15.764000 18.991000 1.024000 
16.811000 17.888000 0.944000 
16.445000 16.781000 0.491000 
17.963000 18.164000 1.340000 
12.899000 18.724000 1.234000 
14.283000 21.017000 0.274000 
14.425000 18.053000 -0.386000 
15.529000 19.252000 -1.102000 
16.265000 19.952000 1.140000 
15.128000 18.815000 1.891000 
12.263000 19.528000 -1.913000 
11.607000 19.699000 -3.204000 
10.085000 19.622000 -3.038000 
9.422000 20.655000 -3.023000 
12.133000 18.625000 -4.173000 
11.403000 18.701000 -5.521000 
11.635000 20.044000 -6.212000 
12.523000 20.164000 -7.050000 
10.832000 21.051000 -5.865000 
12.016000 18.722000 -1.352000 
11.862000 20.681000 -3.600000 
13.200000 18.781000 -4.335000 
11.980000 17.638000 -3.737000 
11.774000 17.904000 -6.167000 
10.337000 18.557000 -5.364000 
10.116000 20.911000 -5.164000 
10.943000 21.955000 -6.301000 
9.546000 18.395000 -2.924000 
8.109000 18.157000 -2.765000 
7.267000 19.102000 -3.628000 
6.616000 20.001000 -3.099000 
10.154000 17.590000 -2.942000 
7.888000 17.128000 -3.048000 
7.839000 18.302000 -1.721000 
7.266000 18.894000 -4.952000 
6.472000 19.723000 -5.854000 
4.991000 19.422000 -5.636000 
4.187000 20.335000 -5.455000 
6.861000 19.442000 -7.310000 
8.339000 19.771000 -7.531000 
8.703000 19.628000 -9.017000 
8.408000 18.205000 -9.520000 
9.025000 17.181000 -8.654000 
7.820000 18.141000 -5.345000 
6.659000 20.775000 -5.632000 
6.684000 18.394000 -7.532000 
6.251000 20.059000 -7.971000 
8.528000 20.798000 -7.215000 
8.953000 19.098000 -6.941000 
8.121000 20.342000 -9.600000 
9.765000 19.842000 -9.147000 
7.330000 18.048000 -9.548000 
8.805000 18.099000 -10.530000 
10.015000 17.357000 -8.574000 
8.601000 17.213000 -7.731000 
8.877000 16.267000 -9.055000 
4.643000 18.132000 -5.658000 
3.277000 17.682000 -5.462000 
3.303000 16.273000 -4.872000 
4.373000 15.733000 -4.597000 
2.550000 17.699000 -6.814000 
1.205000 17.298000 -6.649000 
5.355000 17.426000 -5.818000 
2.767000 18.352000 -4.769000 
2.576000 18.707000 -7.228000 
3.049000 17.014000 -7.502000 
0.992000 16.647000 -7.337000 
2.127000 15.672000 -4.686000 
2.033000 14.315000 -4.171000 
2.649000 13.356000 -5.190000 
3.158000 12.300000 -4.821000 
0.563000 13.956000 -3.914000 
-0.067000 14.931000 -2.903000 
-1.541000 14.568000 -2.709000 
0.657000 14.842000 -1.555000 
1.273000 16.162000 -4.918000 
2.591000 14.244000 -3.238000 
0.012000 14.008000 -4.854000 
0.505000 12.941000 -3.520000 
0.002000 15.949000 -3.284000 
-2.058000 14.618000 -3.668000 
-1.619000 13.557000 -2.308000 
-2.001000 15.271000 -2.013000 
0.781000 13.796000 -1.274000 
1.635000 15.316000 -1.633000 
0.070000 15.354000 -0.793000 
2.599000 13.743000 -6.474000 
3.141000 12.952000 -7.571000 
4.623000 12.638000 -7.345000 
5.117000 11.620000 -7.826000 
2.965000 13.737000 -8.876000 
1.522000 14.193000 -9.055000 
1.153000 15.187000 -8.388000 
0.817000 13.542000 -9.857000 
2.162000 14.626000 -6.706000 
2.585000 12.017000 -7.642000 
3.615000 14.612000 -8.857000 
3.248000 13.102000 -9.715000 
5.332000 13.514000 -6.617000 
6.752000 13.330000 -6.340000 
6.995000 11.990000 -5.637000 
8.082000 11.426000 -5.750000 
7.260000 14.484000 -5.462000 
7.246000 15.815000 -6.211000 
6.210000 16.108000 -6.843000 
8.278000 16.524000 -6.139000 
4.878000 14.339000 -6.245000 
7.301000 13.336000 -7.283000 
6.629000 14.566000 -4.578000 
8.282000 14.267000 -5.148000 
5.984000 11.490000 -4.906000 
6.103000 10.244000 -4.158000 
5.131000 9.189000 -4.697000 
5.509000 8.033000 -4.856000 
5.839000 10.538000 -2.682000 
6.844000 11.499000 -2.086000 
8.166000 11.079000 -1.857000 
6.461000 12.816000 -1.774000 
9.103000 11.973000 -1.316000 
7.399000 13.709000 -1.233000 
8.720000 13.288000 -1.004000 
5.107000 11.992000 -4.859000 
7.118000 9.862000 -4.259000 
4.846000 10.968000 -2.584000 
5.873000 9.604000 -2.124000 
8.462000 10.070000 -2.101000 
5.447000 13.143000 -1.953000 
10.119000 11.651000 -1.142000 
7.106000 14.721000 -0.995000 
9.440000 13.975000 -0.590000 
3.882000 9.576000 -4.979000 
2.893000 8.642000 -5.501000 
3.095000 8.480000 -7.005000 
3.170000 9.469000 -7.730000 
1.481000 9.159000 -5.192000 
0.419000 8.135000 -5.632000 
0.649000 6.791000 -4.929000 
-0.968000 8.660000 -5.262000 
3.608000 10.536000 -4.833000 
3.033000 7.678000 -5.015000 
1.388000 9.334000 -4.124000 
1.318000 10.098000 -5.724000 
0.473000 7.993000 -6.711000 
0.878000 6.962000 -3.877000 
-0.252000 6.183000 -5.008000 
1.477000 6.266000 -5.403000 
-1.124000 9.635000 -5.723000 
-1.727000 7.964000 -5.619000 
-1.044000 8.754000 -4.178000 
3.182000 7.230000 -7.474000 
3.390000 6.942000 -8.890000 
2.068000 7.061000 -9.665000 
1.728000 6.170000 -10.440000 
3.997000 5.535000 -9.042000 
3.148000 4.503000 -8.277000 
5.427000 5.535000 -8.488000 
3.337000 3.115000 -8.891000 
3.105000 6.452000 -6.836000 
4.095000 7.669000 -9.296000 
4.025000 5.268000 -10.099000 
3.457000 4.480000 -7.233000 
2.096000 4.778000 -8.334000 
6.024000 6.274000 -9.024000 
5.410000 5.784000 -7.427000 
5.871000 4.549000 -8.622000 
3.034000 3.134000 -9.938000 
4.385000 2.824000 -8.822000 
2.725000 2.393000 -8.350000 
1.340000 8.176000 -9.448000 
0.059000 8.458000 -10.108000 
-1.002000 7.424000 -9.707000 
-1.909000 7.739000 -8.937000 
0.233000 8.508000 -11.640000 
0.648000 9.918000 -12.084000 
2.012000 10.285000 -11.487000 
2.614000 11.468000 -12.251000 
1.709000 12.631000 -12.237000 
1.688000 8.866000 -8.797000 
-0.285000 9.437000 -9.772000 
0.991000 7.794000 -11.954000 
-0.715000 8.254000 -12.116000 
0.711000 9.943000 -13.173000 
-0.102000 10.637000 -11.751000 
1.891000 10.556000 -10.437000 
2.685000 9.429000 -11.563000 
3.561000 11.747000 -11.787000 
2.799000 11.172000 -13.285000 
1.478000 12.870000 -11.278000 
2.162000 13.419000 -12.677000 
0.863000 12.408000 -12.738000 
-0.892000 6.202000 -10.237000 
-1.846000 5.139000 -9.959000 
-1.739000 4.677000 -8.501000 
-2.498000 3.745000 -8.152000 
-1.595000 3.972000 -10.925000 
-0.202000 3.361000 -10.681000 
-0.300000 1.889000 -10.288000 
0.318000 1.035000 -10.918000 
-1.076000 1.591000 -9.245000 
-0.795000 5.129000 -7.815000 
-0.120000 5.998000 -10.856000 
-2.854000 5.521000 -10.129000 
-2.361000 3.210000 -10.777000 
-1.651000 4.338000 -11.951000 
0.387000 3.446000 -11.595000 
0.302000 3.907000 -9.886000 
-1.586000 2.330000 -8.766000 
-1.156000 0.636000 -8.935000 
